1.89999998 -4.00000000 -0.05606200 -0.066848 0.567493 0.820660
1.89999998 -3.90000010 -0.12470500 -0.066330 0.543342 0.836887
1.89999998 -3.79999995 -0.18588001 -0.059318 0.478685 0.875980
1.89999998 -3.70000005 -0.23404700 -0.045888 0.365794 0.929564
1.89999998 -3.59999990 -0.26452100 -0.024608 0.193352 0.980821
1.89999998 -3.50000000 -0.27389500 0.002996 -0.020974 0.999776
1.89999998 -3.40000010 -0.26036400 0.032850 -0.242118 0.969690
1.89999998 -3.29999995 -0.22393800 0.060962 -0.424026 0.903596
1.89999998 -3.20000005 -0.16650800 0.081316 -0.549237 0.831701
1.89999998 -3.09999990 -0.09176900 0.094962 -0.623830 0.775770
1.89999998 -3.00000000 -0.00498700 0.104724 -0.662266 0.741915
1.89999998 -2.90000010 0.08736200 0.110842 -0.669484 0.734511
1.89999998 -2.79999995 0.17806099 0.110646 -0.647645 0.753865
1.89999998 -2.70000005 0.25969601 0.103691 -0.588556 0.801779
1.89999998 -2.59999990 0.32523099 0.085689 -0.476205 0.875149
1.89999998 -2.50000000 0.36857000 0.054368 -0.284486 0.957137
1.89999998 -2.40000010 0.38505900 0.002985 -0.014924 0.999884
1.89999998 -2.29999995 0.37189701 -0.056637 0.273116 0.960312
1.89999998 -2.20000005 0.32839999 -0.107446 0.497119 0.861004
1.89999998 -2.09999990 0.25612301 -0.145730 0.638507 0.755692
1.89999998 -2.00000000 0.15880100 -0.169541 0.719404 0.673582
1.89999998 -1.89999998 0.04212700 -0.188856 0.760030 0.621843
1.89999998 -1.79999995 -0.08663000 -0.205109 0.775715 0.596822
1.89999998 -1.70000005 -0.21912800 -0.215369 0.773158 0.596525
1.89999998 -1.60000002 -0.34655699 -0.222621 0.748815 0.624272
1.89999998 -1.50000000 -0.46027899 -0.220028 0.697536 0.681932
1.89999998 -1.39999998 -0.55247802 -0.201780 0.599177 0.774772
1.89999998 -1.29999995 -0.61675203 -0.153783 0.423982 0.892519
1.89999998 -1.20000005 -0.64860803 -0.051821 0.137038 0.989209
1.89999998 -1.10000002 -0.64582199 0.090284 -0.199119 0.975808
1.89999998 -1.00000000 -0.60862899 0.221441 -0.459453 0.860155
1.89999998 -0.89999998 -0.53974003 0.321919 -0.603396 0.729576
1.89999998 -0.80000001 -0.44416401 0.399430 -0.664612 0.631464
1.89999998 -0.69999999 -0.32885900 0.466911 -0.681121 0.563975
1.89999998 -0.60000002 -0.20223700 0.532177 -0.666480 0.522104
1.89999998 -0.50000000 -0.07355200 0.598459 -0.625431 0.500682
1.89999998 -0.40000001 0.04777300 0.668926 -0.554923 0.494569
1.89999998 -0.30000001 0.15284300 0.736211 -0.458271 0.497977
1.89999998 -0.20000000 0.23394600 0.797816 -0.329637 0.504806
1.89999998 -0.10000000 0.28512099 0.842160 -0.171413 0.511258
1.89999998 0.00000000 0.30260801 0.857011 0.004036 0.515283
1.89999998 0.10000000 0.28512099 0.839532 0.178082 0.513297
1.89999998 0.20000000 0.23394600 0.796240 0.336687 0.502637
1.89999998 0.30000001 0.15284300 0.735174 0.464233 0.493971
1.89999998 0.40000001 0.04777300 0.666924 0.559410 0.492213
1.89999998 0.50000000 -0.07355200 0.597197 0.627478 0.499627
1.89999998 0.60000002 -0.20223700 0.532177 0.666480 0.522104
1.89999998 0.69999999 -0.32885900 0.465848 0.682909 0.562691
1.89999998 0.80000001 -0.44416401 0.398551 0.666456 0.630074
1.89999998 0.89999998 -0.53974003 0.321160 0.601974 0.731084
1.89999998 1.00000000 -0.60862899 0.221172 0.455886 0.862120
1.89999998 1.10000002 -0.64582199 0.087282 0.193003 0.977308
1.89999998 1.20000005 -0.64860803 -0.054543 -0.147382 0.987575
1.89999998 1.29999995 -0.61675203 -0.154194 -0.430879 0.889139
1.89999998 1.39999998 -0.55247802 -0.204946 -0.605592 0.768932
1.89999998 1.50000000 -0.46027899 -0.220015 -0.700616 0.678771
1.89999998 1.60000002 -0.34655699 -0.222532 -0.751630 0.620912
1.89999998 1.70000005 -0.21912800 -0.214854 -0.774400 0.595098
1.89999998 1.79999995 -0.08663000 -0.204994 -0.778362 0.593405
1.89999998 1.89999998 0.04212700 -0.192181 -0.761035 0.619590
1.89999998 2.00000000 0.15880100 -0.172506 -0.719029 0.673231
1.89999998 2.09999990 0.25612301 -0.146061 -0.639959 0.754399
1.89999998 2.20000005 0.32839999 -0.107446 -0.497119 0.861004
1.89999998 2.29999995 0.37189701 -0.056676 -0.270784 0.960970
1.89999998 2.40000010 0.38505900 0.002990 0.018940 0.999816
1.89999998 2.50000000 0.36857000 0.054461 0.287502 0.956230
1.89999998 2.59999990 0.32523099 0.085574 0.478373 0.873977
1.89999998 2.70000005 0.25969601 0.103513 0.590460 0.800401
1.89999998 2.79999995 0.17806099 0.110892 0.649088 0.752587
1.89999998 2.90000010 0.08736200 0.110862 0.672563 0.731689
1.89999998 3.00000000 -0.00498700 0.104519 0.663917 0.740466
1.89999998 3.09999990 -0.09176900 0.095004 0.627025 0.773184
1.89999998 3.20000005 -0.16650800 0.081509 0.550542 0.830819
1.89999998 3.29999995 -0.22393800 0.060962 0.424026 0.903596
1.89999998 3.40000010 -0.26036400 0.035281 0.242098 0.969610
1.89999998 3.50000000 -0.27389500 0.002996 0.020974 0.999776
1.89999998 3.59999990 -0.26452100 -0.024654 -0.196057 0.980283
1.89999998 3.70000005 -0.23404700 -0.045888 -0.365794 0.929564
1.89999998 3.79999995 -0.18588001 -0.059462 -0.479845 0.875336
1.89999998 3.90000010 -0.12470500 -0.066330 -0.543342 0.836887
1.89999998 4.00000000 -0.05606200 -0.066740 -0.569417 0.819335
1.89999998 4.09999990 0.01412800 -0.063819 -0.563024 0.823973
1.89999998 4.19999981 0.08005200 -0.060103 -0.521355 0.851221
1.89999998 4.30000019 0.13646799 -0.050109 -0.442856 0.895192
1.89999998 4.40000010 0.17911300 -0.034434 -0.325208 0.945015
1.89999998 4.50000000 0.20501100 -0.017138 -0.165672 0.986032
1.89999998 4.59999990 0.21267401 0.000991 0.014865 0.999889
1.89999998 4.69999981 0.20216900 0.017363 0.184051 0.982763
1.89999998 4.80000019 0.17506200 0.031759 0.321399 0.946411
1.89999998 4.90000010 0.13423900 0.037996 0.381265 0.923684
2.00000000 -5.00000000 0.07833600 0.044810 -0.454893 0.889418
2.00000000 -4.90000010 0.12957500 0.044152 -0.421447 0.905777
2.00000000 -4.80000019 0.17148700 0.034542 -0.331350 0.942876
2.00000000 -4.69999981 0.20009200 0.022286 -0.200577 0.979424
2.00000000 -4.59999990 0.21240599 0.003038 -0.033416 0.999437
2.00000000 -4.50000000 0.20673200 -0.016882 0.145182 0.989261
2.00000000 -4.40000010 0.18284300 -0.034104 0.306935 0.951119
2.00000000 -4.30000019 0.14205500 -0.049981 0.430916 0.901007
2.00000000 -4.19999981 0.08716900 -0.060076 0.512744 0.856437
2.00000000 -4.09999990 0.02228800 -0.066699 0.557715 0.827348
2.00000000 -4.00000000 -0.04748400 -0.069841 0.568709 0.819568
2.00000000 -3.90000010 -0.11642600 -0.069467 0.545813 0.835023
2.00000000 -3.79999995 -0.17866100 -0.065269 0.487435 0.870717
2.00000000 -3.70000005 -0.22863200 -0.051618 0.382504 0.922511
2.00000000 -3.59999990 -0.26157600 -0.029916 0.218987 0.975269
2.00000000 -3.50000000 -0.27394000 -0.000987 0.010858 0.999941
2.00000000 -3.40000010 -0.26372400 0.032131 -0.210640 0.977036
2.00000000 -3.29999995 -0.23069300 0.060459 -0.399028 0.914943
2.00000000 -3.20000005 -0.17646299 0.083922 -0.530556 0.843485
2.00000000 -3.09999990 -0.10444000 0.097894 -0.612205 0.784616
2.00000000 -3.00000000 -0.01961100 0.110741 -0.657064 0.745657
2.00000000 -2.90000010 0.07179600 0.114233 -0.669081 0.734358
2.00000000 -2.79999995 0.16276200 0.116987 -0.650095 0.750793
2.00000000 -2.70000005 0.24599899 0.109916 -0.599409 0.792861
2.00000000 -2.59999990 0.31450701 0.095120 -0.498317 0.861761
2.00000000 -2.50000000 0.36213100 0.063894 -0.327293 0.942760
2.00000000 -2.40000010 0.38405499 0.015896 -0.073121 0.997196
2.00000000 -2.29999995 0.37720901 -0.047042 0.213496 0.975811
2.00000000 -2.20000005 0.34055299 -0.102826 0.452153 0.885994
2.00000000 -2.09999990 0.27520299 -0.145165 0.609094 0.779700
2.00000000 -2.00000000 0.18440300 -0.175930 0.699131 0.693011
2.00000000 -1.89999998 0.07332300 -0.195518 0.746664 0.635819
2.00000000 -1.79999995 -0.05128900 -0.212237 0.766843 0.605729
2.00000000 -1.70000005 -0.18157700 -0.225820 0.767787 0.599590
2.00000000 -1.60000002 -0.30915299 -0.233364 0.750210 0.618649
2.00000000 -1.50000000 -0.42570600 -0.237235 0.708564 0.664573
2.00000000 -1.39999998 -0.52362502 -0.223223 0.629083 0.744597
2.00000000 -1.29999995 -0.59657198 -0.186358 0.490495 0.851285
2.00000000 -1.20000005 -0.63996398 -0.104727 0.257292 0.960642
2.00000000 -1.10000002 -0.65133101 0.026299 -0.051547 0.998324
2.00000000 -1.00000000 -0.63051498 0.172375 -0.334939 0.926338
2.00000000 -0.89999998 -0.57968998 0.291682 -0.515568 0.805674
2.00000000 -0.80000001 -0.50321800 0.383255 -0.603668 0.699071
2.00000000 -0.69999999 -0.40732601 0.457671 -0.635374 0.621963
2.00000000 -0.60000002 -0.29964599 0.528666 -0.626629 0.572580
2.00000000 -0.50000000 -0.18864700 0.596050 -0.589296 0.545394
2.00000000 -0.40000001 -0.08299400 0.663437 -0.525710 0.532429
2.00000000 -0.30000001 0.00910000 0.729306 -0.431630 0.530856
2.00000000 -0.20000000 0.08049400 0.784774 -0.310408 0.536448
2.00000000 -0.10000000 0.12566499 0.825256 -0.159679 0.541714
2.00000000 0.00000000 0.14112000 0.840071 0.004058 0.542461
2.00000000 0.10000000 0.12566499 0.824833 0.166164 0.540408
2.00000000 0.20000000 0.08049400 0.784106 0.314601 0.534981
2.00000000 0.30000001 0.00910000 0.726707 0.435362 0.531373
2.00000000 0.40000001 -0.08299400 0.660375 0.529309 0.532669
2.00000000 0.50000000 -0.18864700 0.592680 0.592680 0.545400
2.00000000 0.60000002 -0.29964599 0.525108 0.629792 0.572385
2.00000000 0.69999999 -0.40732601 0.457671 0.635374 0.621963
2.00000000 0.80000001 -0.50321800 0.380443 0.604427 0.699950
2.00000000 0.89999998 -0.57968998 0.288060 0.514730 0.807512
2.00000000 1.00000000 -0.63051498 0.168932 0.330883 0.928428
2.00000000 1.10000002 -0.65133101 0.024002 0.044874 0.998704
2.00000000 1.20000005 -0.63996398 -0.107941 -0.264000 0.958464
2.00000000 1.29999995 -0.59657198 -0.189917 -0.494980 0.847896
2.00000000 1.39999998 -0.52362502 -0.226341 -0.635315 0.738339
2.00000000 1.50000000 -0.42570600 -0.237200 -0.711600 0.661333
2.00000000 1.60000002 -0.30915299 -0.236223 -0.752472 0.614805
2.00000000 1.70000005 -0.18157700 -0.225699 -0.770491 0.596157
2.00000000 1.79999995 -0.05128900 -0.215084 -0.769041 0.601926
2.00000000 1.89999998 0.07332300 -0.198865 -0.747671 0.633593
2.00000000 2.00000000 0.18440300 -0.175930 -0.699131 0.693011
2.00000000 2.09999990 0.27520299 -0.145165 -0.609094 0.779700
2.00000000 2.20000005 0.34055299 -0.102826 -0.452153 0.885994
2.00000000 2.29999995 0.37720901 -0.047066 -0.211192 0.976311
2.00000000 2.40000010 0.38405499 0.015958 0.077663 0.996852
2.00000000 2.50000000 0.36213100 0.063996 0.330429 0.941659
2.00000000 2.59999990 0.31450701 0.095218 0.501670 0.859803
2.00000000 2.70000005 0.24599899 0.110172 0.600804 0.791768
2.00000000 2.79999995 0.16276200 0.117021 0.653246 0.748048
2.00000000 2.90000010 0.07179600 0.114233 0.669081 0.734358
2.00000000 3.00000000 -0.01961100 0.110741 0.657064 0.745657
2.00000000 3.09999990 -0.10444000 0.100837 0.615253 0.781854
2.00000000 3.20000005 -0.17646299 0.084124 0.531832 0.842661
2.00000000 3.29999995 -0.23069300 0.060459 0.399028 0.914943
2.00000000 3.40000010 -0.26372400 0.032131 0.210640 0.977036
2.00000000 3.50000000 -0.27394000 -0.000989 -0.010880 0.999940
2.00000000 3.59999990 -0.26157600 -0.029970 -0.221781 0.974636
2.00000000 3.70000005 -0.22863200 -0.051745 -0.383441 0.922115
2.00000000 3.79999995 -0.17866100 -0.065427 -0.488616 0.870042
2.00000000 3.90000010 -0.11642600 -0.069360 -0.547799 0.833730
2.00000000 4.00000000 -0.04748400 -0.069841 -0.568709 0.819568
2.00000000 4.09999990 0.02228800 -0.066699 -0.557715 0.827348
2.00000000 4.19999981 0.08716900 -0.060076 -0.512744 0.856437
2.00000000 4.30000019 0.14205500 -0.049981 -0.430916 0.901007
2.00000000 4.40000010 0.18284300 -0.034104 -0.306935 0.951119
2.00000000 4.50000000 0.20673200 -0.016882 -0.145182 0.989261
2.00000000 4.59999990 0.21240599 0.003038 0.033416 0.999437
2.00000000 4.69999981 0.20009200 0.022286 0.200577 0.979424
2.00000000 4.80000019 0.17148700 0.034513 0.333625 0.942074
2.00000000 4.90000010 0.12957500 0.040924 0.389443 0.920141
2.09999990 -5.00000000 0.07274300 0.047691 -0.459197 0.887054
2.09999990 -4.90000010 0.12458300 0.047056 -0.428883 0.902134
2.09999990 -4.80000019 0.16758800 0.037328 -0.343674 0.938347
2.09999990 -4.69999981 0.19772300 0.024971 -0.215226 0.976245
2.09999990 -4.59999990 0.21190700 0.005163 -0.052667 0.998599
2.09999990 -4.50000000 0.20830500 -0.014378 0.124975 0.992056
2.09999990 -4.40000010 0.18652900 -0.033768 0.288905 0.956762
2.09999990 -4.30000019 0.14771700 -0.049723 0.417943 0.907111
2.09999990 -4.19999981 0.09448500 -0.062675 0.502794 0.862131
2.09999990 -4.09999990 0.03076500 -0.069579 0.552372 0.830689
2.09999990 -4.00000000 -0.03848100 -0.075634 0.566540 0.820556
2.09999990 -3.90000010 -0.10763900 -0.075346 0.550167 0.831648
2.09999990 -3.79999995 -0.17088100 -0.068507 0.496328 0.865428
2.09999990 -3.70000005 -0.22264101 -0.057498 0.397137 0.915956
2.09999990 -3.59999990 -0.25808200 -0.035427 0.245544 0.968738
2.09999990 -3.50000000 -0.27351299 -0.007158 0.041927 0.999095
2.09999990 -3.40000010 -0.26673400 0.026713 -0.177697 0.983723
2.09999990 -3.29999995 -0.23726100 0.059626 -0.372328 0.926184
2.09999990 -3.20000005 -0.18642899 0.083655 -0.511858 0.854987
2.09999990 -3.09999990 -0.11734700 0.100805 -0.600444 0.793288
2.09999990 -3.00000000 -0.03471100 0.113811 -0.648872 0.752337
2.09999990 -2.90000010 0.05551700 0.120561 -0.665318 0.736761
2.09999990 -2.79999995 0.14652900 0.123371 -0.652526 0.747656
2.09999990 -2.70000005 0.23117900 0.119546 -0.609538 0.783691
2.09999990 -2.59999990 0.30252400 0.105085 -0.519669 0.847881
2.09999990 -2.50000000 0.35436201 0.076304 -0.365456 0.927696
2.09999990 -2.40000010 0.38172799 0.028119 -0.131596 0.990905
2.09999990 -2.29999995 0.38129601 -0.035492 0.149982 0.988051
2.09999990 -2.20000005 0.35167700 -0.094867 0.400093 0.911551
2.09999990 -2.09999990 0.29355600 -0.144202 0.572347 0.807233
2.09999990 -2.00000000 0.20968400 -0.176237 0.675831 0.715676
2.09999990 -1.89999998 0.10470600 -0.202589 0.731484 0.651067
2.09999990 -1.79999995 -0.01515500 -0.222343 0.757210 0.614164
2.09999990 -1.70000005 -0.14254101 -0.236343 0.762246 0.602597
2.09999990 -1.60000002 -0.26949701 -0.246684 0.749479 0.614352
2.09999990 -1.50000000 -0.38805300 -0.251069 0.715310 0.652148
2.09999990 -1.39999998 -0.49081999 -0.244079 0.653503 0.716491
2.09999990 -1.29999995 -0.57154000 -0.216455 0.541904 0.812088
2.09999990 -1.20000005 -0.62555897 -0.155184 0.356503 0.921316
2.09999990 -1.10000002 -0.65018100 -0.040679 0.091254 0.994996
2.09999990 -1.00000000 -0.64486402 0.105892 -0.193097 0.975449
2.09999990 -0.89999998 -0.61126697 0.243523 -0.407863 0.879968
2.09999990 -0.80000001 -0.55311698 0.349555 -0.526749 0.774820
2.09999990 -0.69999999 -0.47592300 0.437240 -0.576891 0.689941
2.09999990 -0.60000002 -0.38654801 0.514590 -0.578703 0.632693
2.09999990 -0.50000000 -0.29267901 0.583775 -0.549933 0.597312
2.09999990 -0.40000001 -0.20223700 0.650926 -0.489456 0.580283
2.09999990 -0.30000001 -0.12275600 0.714803 -0.401148 0.572833
2.09999990 -0.20000000 -0.06080700 0.767178 -0.287493 0.573398
2.09999990 -0.10000000 -0.02148300 0.804794 -0.147819 0.574853
2.09999990 0.00000000 -0.00800700 0.816848 0.004091 0.576839
2.09999990 0.10000000 -0.02148300 0.804394 0.154288 0.573711
2.09999990 0.20000000 -0.06080700 0.765843 0.294555 0.571596
2.09999990 0.30000001 -0.12275600 0.712621 0.408393 0.570427
2.09999990 0.40000001 -0.20223700 0.651118 0.492965 0.577089
2.09999990 0.50000000 -0.29267901 0.582688 0.552287 0.596200
2.09999990 0.60000002 -0.38654801 0.511099 0.581945 0.632549
2.09999990 0.69999999 -0.47592300 0.434545 0.577728 0.690943
2.09999990 0.80000001 -0.55311698 0.349555 0.526749 0.774820
2.09999990 0.89999998 -0.61126697 0.240367 0.404593 0.882342
2.09999990 1.00000000 -0.64486402 0.102726 0.189363 0.976519
2.09999990 1.10000002 -0.65018100 -0.043225 -0.098643 0.994184
2.09999990 1.20000005 -0.62555897 -0.156073 -0.364171 0.918161
2.09999990 1.29999995 -0.57154000 -0.220104 -0.546413 0.808076
2.09999990 1.39999998 -0.49081999 -0.244125 -0.656776 0.713476
2.09999990 1.50000000 -0.38805300 -0.251531 -0.719790 0.647020
2.09999990 1.60000002 -0.26949701 -0.246577 -0.752294 0.610945
2.09999990 1.70000005 -0.14254101 -0.236223 -0.764987 0.599161
2.09999990 1.79999995 -0.01515500 -0.222768 -0.758656 0.612222
2.09999990 1.89999998 0.10470600 -0.202589 -0.731484 0.651067
2.09999990 2.00000000 0.20968400 -0.179205 -0.675463 0.715287
2.09999990 2.09999990 0.29355600 -0.144202 -0.572347 0.807233
2.09999990 2.20000005 0.35167700 -0.097591 -0.399987 0.911310
2.09999990 2.29999995 0.38129601 -0.035424 -0.147409 0.988441
2.09999990 2.40000010 0.38172799 0.028173 0.134104 0.990567
2.09999990 2.50000000 0.35436201 0.076419 0.368686 0.926407
2.09999990 2.59999990 0.30252400 0.105184 0.523038 0.845794
2.09999990 2.70000005 0.23117900 0.119607 0.612799 0.781135
2.09999990 2.79999995 0.14652900 0.123404 0.655679 0.744887
2.09999990 2.90000010 0.05551700 0.120322 0.666972 0.735303
2.09999990 3.00000000 -0.03471100 0.114065 0.650318 0.751050
2.09999990 3.09999990 -0.11734700 0.100805 0.600444 0.793288
2.09999990 3.20000005 -0.18642899 0.083655 0.511858 0.854987
2.09999990 3.29999995 -0.23726100 0.059626 0.372328 0.926184
2.09999990 3.40000010 -0.26673400 0.029034 0.177686 0.983659
2.09999990 3.50000000 -0.27351299 -0.005123 -0.044059 0.999016
2.09999990 3.59999990 -0.25808200 -0.035405 -0.247838 0.968154
2.09999990 3.70000005 -0.22264101 -0.057578 -0.400365 0.914545
2.09999990 3.79999995 -0.17088100 -0.068412 -0.498431 0.864226
2.09999990 3.90000010 -0.10763900 -0.075346 -0.550167 0.831648
2.09999990 4.00000000 -0.03848100 -0.075811 -0.567869 0.819620
2.09999990 4.09999990 0.03076500 -0.069579 -0.552372 0.830689
2.09999990 4.19999981 0.09448500 -0.062826 -0.504004 0.861414
2.09999990 4.30000019 0.14771700 -0.052404 -0.417886 0.906987
2.09999990 4.40000010 0.18652900 -0.033768 -0.288905 0.956762
2.09999990 4.50000000 0.20830500 -0.014378 -0.124975 0.992056
2.09999990 4.59999990 0.21190700 0.005163 0.052667 0.998599
2.09999990 4.69999981 0.19772300 0.024958 0.217492 0.975743
2.09999990 4.80000019 0.16758800 0.037328 0.343674 0.938347
2.09999990 4.90000010 0.12458300 0.043788 0.396742 0.916885
2.20000005 -5.00000000 0.06684100 0.050590 -0.463515 0.884644
2.20000005 -4.90000010 0.11925300 0.049923 -0.433112 0.899956
2.20000005 -4.80000019 0.16335000 0.040177 -0.353821 0.934450
2.20000005 -4.69999981 0.19504100 0.027644 -0.231965 0.972331
2.20000005 -4.59999990 0.21114500 0.009478 -0.072666 0.997311
2.20000005 -4.50000000 0.20969500 -0.011928 0.105185 0.994381
2.20000005 -4.40000010 0.19013500 -0.033348 0.270488 0.962146
2.20000005 -4.30000019 0.15341599 -0.052053 0.401745 0.914271
2.20000005 -4.19999981 0.10196500 -0.065406 0.494027 0.866983
2.20000005 -4.09999990 0.03953400 -0.072459 0.546997 0.833993
2.20000005 -4.00000000 -0.02907000 -0.078598 0.564473 0.821701
2.20000005 -3.90000010 -0.09834500 -0.078543 0.552657 0.829699
2.20000005 -3.79999995 -0.16252500 -0.074400 0.503958 0.860518
2.20000005 -3.70000005 -0.21604501 -0.060871 0.415276 0.907656
2.20000005 -3.59999990 -0.25399601 -0.041067 0.270049 0.961971
2.20000005 -3.50000000 -0.27255401 -0.011656 0.075233 0.997098
2.20000005 -3.40000010 -0.26931900 0.023691 -0.143277 0.989399
2.20000005 -3.29999995 -0.24356000 0.056127 -0.340680 0.938502
2.20000005 -3.20000005 -0.19632301 0.083059 -0.488500 0.868602
2.20000005 -3.09999990 -0.13041100 0.103626 -0.585266 0.804193
2.20000005 -3.00000000 -0.05021500 0.116874 -0.640586 0.758940
2.20000005 -2.90000010 0.03857800 0.126922 -0.661490 0.739136
2.20000005 -2.79999995 0.12939000 0.129794 -0.654939 0.744452
2.20000005 -2.70000005 0.21523400 0.126062 -0.618445 0.775651
2.20000005 -2.59999990 0.28923899 0.114685 -0.538583 0.834731
2.20000005 -2.50000000 0.34517699 0.089091 -0.401596 0.911473
2.20000005 -2.40000010 0.37794599 0.043791 -0.188183 0.981157
2.20000005 -2.29999995 0.38398299 -0.020378 0.082584 0.996376
2.20000005 -2.20000005 0.36155701 -0.086514 0.342064 0.935685
2.20000005 -2.09999990 0.31092900 -0.139599 0.530477 0.836126
2.20000005 -2.00000000 0.23436300 -0.178873 0.646693 0.741480
2.20000005 -1.89999998 0.13598201 -0.206243 0.711770 0.671452
2.20000005 -1.79999995 0.02147700 -0.226630 0.745535 0.626750
2.20000005 -1.70000005 -0.10229800 -0.243512 0.755674 0.607996
2.20000005 -1.60000002 -0.22783200 -0.257704 0.747816 0.611849
2.20000005 -1.50000000 -0.34750900 -0.264938 0.721838 0.639342
2.20000005 -1.39999998 -0.45417801 -0.262389 0.669491 0.694934
2.20000005 -1.29999995 -0.54167902 -0.246000 0.581311 0.775604
2.20000005 -1.20000005 -0.60530901 -0.199204 0.435297 0.877972
2.20000005 -1.10000002 -0.64216000 -0.104979 0.218811 0.970104
2.20000005 -1.00000000 -0.65133101 0.028291 -0.045057 0.998584
2.20000005 -0.89999998 -0.63398403 0.175857 -0.276736 0.944718
2.20000005 -0.80000001 -0.59322900 0.301483 -0.428260 0.851881
2.20000005 -0.69999999 -0.53387201 0.402571 -0.503621 0.764396
2.20000005 -0.60000002 -0.46202400 0.486210 -0.522968 0.700075
2.20000005 -0.50000000 -0.38460699 0.560340 -0.503128 0.657937
2.20000005 -0.40000001 -0.30880299 0.629971 -0.449502 0.633313
2.20000005 -0.30000001 -0.24148101 0.690715 -0.369147 0.621807
2.20000005 -0.20000000 -0.18864700 0.740898 -0.264946 0.617150
2.20000005 -0.10000000 -0.15496901 0.775222 -0.135925 0.616892
2.20000005 0.00000000 -0.14340501 0.787121 0.004121 0.616784
2.20000005 0.10000000 -0.15496901 0.774811 0.142373 0.615952
2.20000005 0.20000000 -0.18864700 0.738200 0.271467 0.617548
2.20000005 0.30000001 -0.24148101 0.688710 0.376407 0.619675
2.20000005 0.40000001 -0.30880299 0.628329 0.454073 0.631680
2.20000005 0.50000000 -0.38460699 0.559391 0.505635 0.656822
2.20000005 0.60000002 -0.46202400 0.482803 0.526239 0.699981
2.20000005 0.69999999 -0.53387201 0.399834 0.504281 0.765397
2.20000005 0.80000001 -0.59322900 0.297881 0.427529 0.853514
2.20000005 0.89999998 -0.63398403 0.172767 0.276155 0.945457
2.20000005 1.00000000 -0.65133101 0.025984 0.040536 0.998840
2.20000005 1.10000002 -0.64216000 -0.110667 -0.225150 0.968019
2.20000005 1.20000005 -0.60530901 -0.199719 -0.442341 0.874326
2.20000005 1.29999995 -0.54167902 -0.246147 -0.584795 0.772933
2.20000005 1.39999998 -0.45417801 -0.262408 -0.672719 0.691803
2.20000005 1.50000000 -0.34750900 -0.265476 -0.723303 0.637460
2.20000005 1.60000002 -0.22783200 -0.257096 -0.749205 0.610405
2.20000005 1.70000005 -0.10229800 -0.246935 -0.756533 0.605541
2.20000005 1.79999995 0.02147700 -0.229593 -0.745004 0.626303
2.20000005 1.89999998 0.13598201 -0.206673 -0.713253 0.669743
2.20000005 2.00000000 0.23436300 -0.179279 -0.648161 0.740099
2.20000005 2.09999990 0.31092900 -0.139943 -0.531783 0.835238
2.20000005 2.20000005 0.36155701 -0.086514 -0.342064 0.935685
2.20000005 2.29999995 0.38398299 -0.020338 -0.080282 0.996565
2.20000005 2.40000010 0.37794599 0.043976 0.191353 0.980536
2.20000005 2.50000000 0.34517699 0.089215 0.404901 0.909998
2.20000005 2.59999990 0.28923899 0.114783 0.541948 0.832537
2.20000005 2.70000005 0.21523400 0.126352 0.619870 0.774465
2.20000005 2.79999995 0.12939000 0.129828 0.658092 0.741660
2.20000005 2.90000010 0.03857800 0.126672 0.663164 0.737677
2.20000005 3.00000000 -0.05021500 0.117137 0.642027 0.757681
2.20000005 3.09999990 -0.13041100 0.103449 0.587180 0.802819
2.20000005 3.20000005 -0.19632301 0.085946 0.491722 0.866501
2.20000005 3.29999995 -0.24356000 0.058873 0.341465 0.938049
2.20000005 3.40000010 -0.26931900 0.023691 0.143277 0.989399
2.20000005 3.50000000 -0.27255401 -0.011654 -0.077339 0.996937
2.20000005 3.59999990 -0.25399601 -0.041138 -0.273006 0.961132
2.20000005 3.70000005 -0.21604501 -0.060871 -0.415276 0.907656
2.20000005 3.79999995 -0.16252500 -0.074474 -0.507269 0.858564
2.20000005 3.90000010 -0.09834500 -0.078419 -0.554636 0.828390
2.20000005 4.00000000 -0.02907000 -0.078655 -0.567744 0.819439
2.20000005 4.09999990 0.03953400 -0.072459 -0.546997 0.833993
2.20000005 4.19999981 0.10196500 -0.065406 -0.494027 0.866983
2.20000005 4.30000019 0.15341599 -0.052181 -0.402728 0.913831
2.20000005 4.40000010 0.19013500 -0.033427 -0.271132 0.961962
2.20000005 4.50000000 0.20969500 -0.011931 -0.103040 0.994606
2.20000005 4.59999990 0.21114500 0.009478 0.072666 0.997311
2.20000005 4.69999981 0.19504100 0.027708 0.232509 0.972200
2.20000005 4.80000019 0.16335000 0.040275 0.354680 0.934120
2.20000005 4.90000010 0.11925300 0.046626 0.406315 0.912543
2.29999995 -5.00000000 0.06063200 0.053378 -0.466718 0.882794
2.29999995 -4.90000010 0.11358200 0.052874 -0.440613 0.896139
2.29999995 -4.80000019 0.15875800 0.043166 -0.364947 0.930027
2.29999995 -4.69999981 0.19202000 0.030455 -0.247293 0.968462
2.29999995 -4.59999990 0.21009301 0.011813 -0.093434 0.995555
2.29999995 -4.50000000 0.21086900 -0.009572 0.081897 0.996595
2.29999995 -4.40000010 0.19362199 -0.032946 0.250148 0.967647
2.29999995 -4.30000019 0.15911500 -0.051818 0.386644 0.920772
2.29999995 -4.19999981 0.10957500 -0.065287 0.482010 0.873730
2.29999995 -4.09999990 0.04856700 -0.075275 0.538290 0.839391
2.29999995 -4.00000000 -0.01926800 -0.081568 0.562392 0.822838
2.29999995 -3.90000010 -0.08855000 -0.081574 0.553842 0.828616
2.29999995 -3.79999995 -0.15358600 -0.077718 0.512940 0.854899
2.29999995 -3.70000005 -0.20881601 -0.066770 0.429239 0.900720
2.29999995 -3.59999990 -0.24927300 -0.046889 0.295276 0.954261
2.29999995 -3.50000000 -0.27100199 -0.018629 0.108488 0.993923
2.29999995 -3.40000010 -0.27140701 0.018593 -0.106090 0.994183
2.29999995 -3.29999995 -0.24950600 0.055101 -0.308819 0.949523
2.29999995 -3.20000005 -0.20605500 0.082412 -0.465140 0.881392
2.29999995 -3.09999990 -0.14354201 0.106151 -0.568562 0.815763
2.29999995 -3.00000000 -0.06604400 0.120152 -0.630426 0.766894
2.29999995 -2.90000010 0.02104200 0.130083 -0.656395 0.743117
2.29999995 -2.79999995 0.11138300 0.133282 -0.654430 0.744283
2.29999995 -2.70000005 0.19817001 0.132864 -0.625508 0.768822
2.29999995 -2.59999990 0.27462301 0.121779 -0.559007 0.820171
2.29999995 -2.50000000 0.33450201 0.099163 -0.434363 0.895263
2.29999995 -2.40000010 0.37259001 0.058288 -0.241831 0.968566
2.29999995 -2.29999995 0.38510099 -0.004975 0.014924 0.999876
2.29999995 -2.20000005 0.36997700 -0.072901 0.277536 0.957945
2.29999995 -2.09999990 0.32706600 -0.131442 0.483880 0.865207
2.29999995 -2.00000000 0.25815299 -0.178191 0.613768 0.769114
2.29999995 -1.89999998 0.16683801 -0.210195 0.689751 0.692865
2.29999995 -1.79999995 0.05828400 -0.233927 0.730040 0.642121
2.29999995 -1.70000005 -0.06116700 -0.253762 0.745524 0.616279
2.29999995 -1.60000002 -0.18445399 -0.267785 0.743143 0.613212
2.29999995 -1.50000000 -0.30432999 -0.276051 0.722839 0.633482
2.29999995 -1.39999998 -0.41389501 -0.279550 0.682103 0.675713
2.29999995 -1.29999995 -0.50711101 -0.268306 0.611229 0.744588
2.29999995 -1.20000005 -0.57923800 -0.237292 0.497548 0.834349
2.29999995 -1.10000002 -0.62718600 -0.165231 0.323520 0.931683
2.29999995 -1.00000000 -0.64971602 -0.052428 0.097047 0.993898
2.29999995 -0.89999998 -0.64751202 0.091187 -0.136188 0.986477
2.29999995 -0.80000001 -0.62309200 0.230227 -0.310306 0.922337
2.29999995 -0.69999999 -0.58058298 0.345318 -0.414069 0.842201
2.29999995 -0.60000002 -0.52535999 0.442073 -0.451860 0.774851
2.29999995 -0.50000000 -0.46360001 0.521116 -0.448325 0.726253
2.29999995 -0.40000001 -0.40176201 0.594655 -0.405823 0.694041
2.29999995 -0.30000001 -0.34606001 0.656645 -0.334026 0.676198
2.29999995 -0.20000000 -0.30195001 0.703928 -0.237792 0.669283
2.29999995 -0.10000000 -0.27368000 0.735128 -0.123764 0.666536
2.29999995 0.00000000 -0.26394901 0.746103 0.004153 0.665817
2.29999995 0.10000000 -0.27368000 0.734659 0.130174 0.665831
2.29999995 0.20000000 -0.30195001 0.702747 0.244777 0.668005
2.29999995 0.30000001 -0.34606001 0.653345 0.340521 0.676155
2.29999995 0.40000001 -0.40176201 0.590902 0.412142 0.693523
2.29999995 0.50000000 -0.46360001 0.521590 0.452044 0.723602
2.29999995 0.60000002 -0.52535999 0.438792 0.455104 0.774818
2.29999995 0.69999999 -0.58058298 0.342561 0.414515 0.843107
2.29999995 0.80000001 -0.62309200 0.226916 0.309691 0.923364
2.29999995 0.89999998 -0.64751202 0.088274 0.130645 0.987491
2.29999995 1.00000000 -0.64971602 -0.055116 -0.102359 0.993219
2.29999995 1.10000002 -0.62718600 -0.168650 -0.327542 0.929663
2.29999995 1.20000005 -0.57923800 -0.238142 -0.502403 0.831192
2.29999995 1.29999995 -0.50711101 -0.271361 -0.614132 0.741084
2.29999995 1.39999998 -0.41389501 -0.280154 -0.683576 0.673971
2.29999995 1.50000000 -0.30432999 -0.278913 -0.725174 0.629547
2.29999995 1.60000002 -0.18445399 -0.268306 -0.744588 0.611229
2.29999995 1.70000005 -0.06116700 -0.254255 -0.746973 0.614318
2.29999995 1.79999995 0.05828400 -0.233391 -0.731502 0.640651
2.29999995 1.89999998 0.16683801 -0.209744 -0.691378 0.691378
2.29999995 2.00000000 0.25815299 -0.178609 -0.615208 0.767866
2.29999995 2.09999990 0.32706600 -0.134804 -0.482686 0.865357
2.29999995 2.20000005 0.36997700 -0.072901 -0.277536 0.957945
2.29999995 2.29999995 0.38510099 -0.004955 -0.010901 0.999928
2.29999995 2.40000010 0.37259001 0.058357 0.247086 0.967235
2.29999995 2.50000000 0.33450201 0.099290 0.437717 0.893614
2.29999995 2.59999990 0.27462301 0.124668 0.558805 0.819875
2.29999995 2.70000005 0.19817001 0.132920 0.628757 0.766157
2.29999995 2.79999995 0.11138300 0.136258 0.657331 0.741182
2.29999995 2.90000010 0.02104200 0.130116 0.659551 0.740312
2.29999995 3.00000000 -0.06604400 0.120152 0.630426 0.766894
2.29999995 3.09999990 -0.14354201 0.106403 0.569913 0.814787
2.29999995 3.20000005 -0.20605500 0.085396 0.466179 0.880560
2.29999995 3.29999995 -0.24950600 0.055235 0.309573 0.949270
2.29999995 3.40000010 -0.27140701 0.018593 0.106090 0.994183
2.29999995 3.50000000 -0.27100199 -0.018625 -0.110653 0.993685
2.29999995 3.59999990 -0.24927300 -0.046854 -0.297587 0.953544
2.29999995 3.70000005 -0.20881601 -0.066856 -0.432517 0.899144
2.29999995 3.79999995 -0.15358600 -0.077605 -0.515018 0.853659
2.29999995 3.90000010 -0.08855000 -0.081637 -0.557138 0.826397
2.29999995 4.00000000 -0.01926800 -0.081761 -0.563719 0.821910
2.29999995 4.09999990 0.04856700 -0.075339 -0.541589 0.837260
2.29999995 4.19999981 0.10957500 -0.065287 -0.482010 0.873730
2.29999995 4.30000019 0.15911500 -0.051818 -0.386644 0.920772
2.29999995 4.40000010 0.19362199 -0.032946 -0.250148 0.967647
2.29999995 4.50000000 0.21086900 -0.011699 -0.081895 0.996572
2.29999995 4.59999990 0.21009301 0.011839 0.093634 0.995536
2.29999995 4.69999981 0.19202000 0.030436 0.249578 0.967876
2.29999995 4.80000019 0.15875800 0.043166 0.364947 0.930027
2.29999995 4.90000010 0.11358200 0.049658 0.414708 0.908599
2.40000010 -5.00000000 0.05412100 0.056379 -0.468912 0.881444
2.40000010 -4.90000010 0.10756200 0.055781 -0.444884 0.893849
2.40000010 -4.80000019 0.15379900 0.046090 -0.375306 0.925754
2.40000010 -4.69999981 0.18864100 0.033234 -0.264638 0.963775
2.40000010 -4.59999990 0.20871900 0.014267 -0.115237 0.993236
2.40000010 -4.50000000 0.21178800 -0.007286 0.059331 0.998212
2.40000010 -4.40000010 0.19695100 -0.030078 0.227393 0.973338
2.40000010 -4.30000019 0.16477200 -0.051320 0.369767 0.927706
2.40000010 -4.19999981 0.11727600 -0.067750 0.468717 0.880746
2.40000010 -4.09999990 0.05783000 -0.077963 0.531567 0.843420
2.40000010 -4.00000000 -0.00909800 -0.084546 0.560297 0.823966
2.40000010 -3.90000010 -0.07826400 -0.084616 0.555025 0.827519
2.40000010 -3.79999995 -0.14405601 -0.080874 0.520717 0.849890
2.40000010 -3.70000005 -0.20093200 -0.072915 0.444371 0.892870
2.40000010 -3.59999990 -0.24387200 -0.052759 0.320416 0.945807
2.40000010 -3.50000000 -0.26879799 -0.023744 0.143597 0.989351
2.40000010 -3.40000010 -0.27292299 0.011588 -0.068472 0.997586
2.40000010 -3.29999995 -0.25501299 0.048953 -0.274889 0.960229
2.40000010 -3.20000005 -0.21553101 0.081616 -0.438514 0.895011
2.40000010 -3.09999990 -0.15664500 0.105918 -0.549905 0.828484
2.40000010 -3.00000000 -0.08210900 0.123141 -0.618673 0.775938
2.40000010 -2.90000010 0.00298400 0.133245 -0.651254 0.747070
2.40000010 -2.79999995 0.09256200 0.139469 -0.655354 0.742334
2.40000010 -2.70000005 0.18001001 0.139417 -0.631126 0.763048
2.40000010 -2.59999990 0.25865701 0.131668 -0.572533 0.809240
2.40000010 -2.50000000 0.32227600 0.112266 -0.467539 0.876814
2.40000010 -2.40000010 0.36555201 0.073476 -0.295193 0.952608
2.40000010 -2.29999995 0.38449201 0.013535 -0.053100 0.998497
2.40000010 -2.20000005 0.37672901 -0.057124 0.210266 0.975974
2.40000010 -2.09999990 0.34171200 -0.123028 0.428478 0.895137
2.40000010 -2.00000000 0.28075600 -0.174140 0.576932 0.798013
2.40000010 -1.89999998 0.19694600 -0.210048 0.664375 0.717276
2.40000010 -1.79999995 0.09491700 -0.237693 0.713080 0.659560
2.40000010 -1.70000005 -0.01950100 -0.258195 0.733401 0.628855
2.40000010 -1.60000002 -0.13970800 -0.275047 0.736110 0.618459
2.40000010 -1.50000000 -0.25883400 -0.289605 0.721613 0.628811
2.40000010 -1.39999998 -0.37024900 -0.293751 0.688630 0.662947
2.40000010 -1.29999995 -0.46804899 -0.289688 0.632193 0.718619
2.40000010 -1.20000005 -0.54748702 -0.268596 0.541905 0.796364
2.40000010 -1.10000002 -0.60530901 -0.219921 0.405895 0.887065
2.40000010 -1.00000000 -0.63996398 -0.127169 0.219655 0.967254
2.40000010 -0.89999998 -0.65168703 -0.000985 0.008867 0.999960
2.40000010 -0.80000001 -0.64242899 0.140221 -0.178118 0.973967
2.40000010 -0.69999999 -0.61566299 0.268838 -0.303714 0.914048
2.40000010 -0.60000002 -0.57605302 0.375795 -0.369558 0.849827
2.40000010 -0.50000000 -0.52905101 0.467257 -0.380550 0.798030
2.40000010 -0.40000001 -0.48041600 0.541998 -0.354321 0.762033
2.40000010 -0.30000001 -0.43572399 0.603124 -0.295963 0.740707
2.40000010 -0.20000000 -0.39989001 0.650970 -0.212847 0.728652
2.40000010 -0.10000000 -0.37675700 0.681956 -0.107989 0.723377
2.40000010 0.00000000 -0.36876699 0.693130 0.004150 0.720800
2.40000010 0.10000000 -0.37675700 0.681148 0.117235 0.722699
2.40000010 0.20000000 -0.39989001 0.649773 0.219707 0.727684
2.40000010 0.30000001 -0.43572399 0.601355 0.303083 0.739265
2.40000010 0.40000001 -0.48041600 0.540417 0.358655 0.761128
2.40000010 0.50000000 -0.52905101 0.464170 0.383864 0.798244
2.40000010 0.60000002 -0.57605302 0.371694 0.371694 0.850698
2.40000010 0.69999999 -0.61566299 0.265198 0.305774 0.914425
2.40000010 0.80000001 -0.64242899 0.134599 0.177368 0.974897
2.40000010 0.89999998 -0.65168703 -0.004965 -0.012908 0.999904
2.40000010 1.00000000 -0.63996398 -0.133134 -0.223613 0.965543
2.40000010 1.10000002 -0.60530901 -0.220810 -0.410499 0.884722
2.40000010 1.20000005 -0.54748702 -0.271722 -0.545014 0.793176
2.40000010 1.29999995 -0.46804899 -0.293365 -0.636425 0.713373
2.40000010 1.39999998 -0.37024900 -0.297943 -0.690905 0.658695
2.40000010 1.50000000 -0.25883400 -0.290188 -0.723066 0.626871
2.40000010 1.60000002 -0.13970800 -0.275588 -0.737558 0.616490
2.40000010 1.70000005 -0.01950100 -0.261059 -0.735713 0.624960
2.40000010 1.79999995 0.09491700 -0.237693 -0.713080 0.659560
2.40000010 1.89999998 0.19694600 -0.209614 -0.666108 0.715795
2.40000010 2.00000000 0.28075600 -0.174140 -0.576932 0.798013
2.40000010 2.09999990 0.34171200 -0.123028 -0.428478 0.895137
2.40000010 2.20000005 0.37672901 -0.057018 -0.207448 0.976583
2.40000010 2.29999995 0.38449201 0.013589 0.057491 0.998254
2.40000010 2.40000010 0.36555201 0.073600 0.298275 0.951638
2.40000010 2.50000000 0.32227600 0.112396 0.470926 0.874983
2.40000010 2.59999990 0.25865701 0.131759 0.575891 0.806839
2.40000010 2.70000005 0.18001001 0.139471 0.634370 0.760344
2.40000010 2.79999995 0.09256200 0.139780 0.656815 0.740983
2.40000010 2.90000010 0.00298400 0.136184 0.650991 0.746769
2.40000010 3.00000000 -0.08210900 0.123141 0.618673 0.775938
2.40000010 3.09999990 -0.15664500 0.106003 0.553249 0.826244
2.40000010 3.20000005 -0.21553101 0.081616 0.438514 0.895011
2.40000010 3.29999995 -0.25501299 0.051457 0.274854 0.960108
2.40000010 3.40000010 -0.27292299 0.011588 0.068472 0.997586
2.40000010 3.50000000 -0.26879799 -0.023744 -0.143597 0.989351
2.40000010 3.59999990 -0.24387200 -0.052888 -0.321198 0.945534
2.40000010 3.70000005 -0.20093200 -0.073005 -0.447672 0.891212
2.40000010 3.79999995 -0.14405601 -0.080874 -0.520717 0.849890
2.40000010 3.90000010 -0.07826400 -0.084682 -0.558326 0.825289
2.40000010 4.00000000 -0.00909800 -0.084546 -0.560297 0.823966
2.40000010 4.09999990 0.05783000 -0.078150 -0.532841 0.842599
2.40000010 4.19999981 0.11727600 -0.067827 -0.472017 0.878976
2.40000010 4.30000019 0.16477200 -0.051320 -0.369767 0.927706
2.40000010 4.40000010 0.19695100 -0.032559 -0.227910 0.973138
2.40000010 4.50000000 0.21178800 -0.007271 -0.059208 0.998219
2.40000010 4.59999990 0.20871900 0.014267 0.115237 0.993236
2.40000010 4.69999981 0.18864100 0.033313 0.265267 0.963599
2.40000010 4.80000019 0.15379900 0.046090 0.375306 0.925754
2.40000010 4.90000010 0.10756200 0.052600 0.422152 0.904998
2.50000000 -5.00000000 0.04731100 0.059187 -0.472119 0.879546
2.50000000 -4.90000010 0.10119200 0.058706 -0.449171 0.891515
2.50000000 -4.80000019 0.14845900 0.049048 -0.385752 0.921298
2.50000000 -4.69999981 0.18488100 0.036170 -0.280631 0.959134
2.50000000 -4.59999990 0.20699400 0.019029 -0.135438 0.990603
2.50000000 -4.50000000 0.21241701 -0.005073 0.035510 0.999356
2.50000000 -4.40000010 0.20007899 -0.029645 0.205143 0.978283
2.50000000 -4.30000019 0.17034400 -0.050861 0.350812 0.935064
2.50000000 -4.19999981 0.12502800 -0.067600 0.456645 0.887077
2.50000000 -4.09999990 0.06728800 -0.080755 0.522781 0.848633
2.50000000 -4.00000000 0.00141300 -0.087463 0.554888 0.827314
2.50000000 -3.90000010 -0.06750200 -0.090522 0.556065 0.826195
2.50000000 -3.79999995 -0.13393500 -0.087007 0.526321 0.845823
2.50000000 -3.70000005 -0.19237299 -0.076205 0.458615 0.885362
2.50000000 -3.59999990 -0.23775600 -0.058821 0.343774 0.937208
2.50000000 -3.50000000 -0.26588601 -0.031439 0.175825 0.983919
2.50000000 -3.40000010 -0.27379099 0.005053 -0.029310 0.999558
2.50000000 -3.29999995 -0.25999200 0.045262 -0.238543 0.970077
2.50000000 -3.20000005 -0.22465301 0.080565 -0.411017 0.908061
2.50000000 -3.09999990 -0.16962001 0.108230 -0.529607 0.841310
2.50000000 -3.00000000 -0.09831400 0.125810 -0.605367 0.785941
2.50000000 -2.90000010 -0.01551100 0.139304 -0.642594 0.753437
2.50000000 -2.79999995 0.07299100 0.146242 -0.652811 0.743270
2.50000000 -2.70000005 0.16079000 0.146010 -0.636723 0.757143
2.50000000 -2.59999990 0.24134400 0.141665 -0.586046 0.797798
2.50000000 -2.50000000 0.30845699 0.122523 -0.494418 0.860546
2.50000000 -2.40000010 0.35673901 0.089378 -0.342838 0.935133
2.50000000 -2.29999995 0.38201100 0.032433 -0.121904 0.992012
2.50000000 -2.20000005 0.38161501 -0.039860 0.137800 0.989658
2.50000000 -2.09999990 0.35461700 -0.110788 0.367925 0.923232
2.50000000 -2.00000000 0.30187500 -0.165876 0.533493 0.829380
2.50000000 -1.89999998 0.22596900 -0.209574 0.634932 0.743600
2.50000000 -1.79999995 0.13100800 -0.240827 0.691001 0.681557
2.50000000 -1.70000005 0.02231300 -0.265005 0.718846 0.642677
2.50000000 -1.60000002 -0.09398500 -0.282979 0.727432 0.625112
2.50000000 -1.50000000 -0.21140100 -0.300342 0.717931 0.627989
2.50000000 -1.39999998 -0.32359001 -0.308006 0.691803 0.653101
2.50000000 -1.29999995 -0.42480201 -0.311529 0.647270 0.695694
2.50000000 -1.20000005 -0.51030499 -0.298912 0.573846 0.762464
2.50000000 -1.10000002 -0.57670498 -0.263092 0.466181 0.844664
2.50000000 -1.00000000 -0.62216902 -0.195575 0.319392 0.927221
2.50000000 -0.89999998 -0.64651102 -0.091371 0.138836 0.986091
2.50000000 -0.80000001 -0.65114498 0.036825 -0.041033 0.998479
2.50000000 -0.69999999 -0.63891703 0.168973 -0.181872 0.968695
2.50000000 -0.60000002 -0.61381298 0.287130 -0.269816 0.919106
2.50000000 -0.50000000 -0.58058298 0.388570 -0.303237 0.870092
2.50000000 -0.40000001 -0.54430902 0.469057 -0.291408 0.833707
2.50000000 -0.30000001 -0.50994998 0.533772 -0.250546 0.807660
2.50000000 -0.20000000 -0.48189801 0.582520 -0.180992 0.792409
2.50000000 -0.10000000 -0.46360001 0.612964 -0.091726 0.784768
2.50000000 0.00000000 -0.45724899 0.622844 0.004125 0.782336
2.50000000 0.10000000 -0.46360001 0.612027 0.100787 0.784388
2.50000000 0.20000000 -0.48189801 0.581255 0.187649 0.791789
2.50000000 0.30000001 -0.50994998 0.530700 0.256790 0.807723
2.50000000 0.40000001 -0.54430902 0.465764 0.297528 0.833391
2.50000000 0.50000000 -0.58058298 0.385619 0.306361 0.870311
2.50000000 0.60000002 -0.61381298 0.283504 0.271991 0.919590
2.50000000 0.69999999 -0.63891703 0.165972 0.183985 0.968815
2.50000000 0.80000001 -0.65114498 0.032419 0.038694 0.998725
2.50000000 0.89999998 -0.64651102 -0.096721 -0.142096 0.985116
2.50000000 1.00000000 -0.62216902 -0.199658 -0.324267 0.924656
2.50000000 1.10000002 -0.57670498 -0.266951 -0.470637 0.840974
2.50000000 1.20000005 -0.51030499 -0.299089 -0.577386 0.759718
2.50000000 1.29999995 -0.42480201 -0.312229 -0.648726 0.694023
2.50000000 1.39999998 -0.32359001 -0.307964 -0.694934 0.649788
2.50000000 1.50000000 -0.21140100 -0.300949 -0.719380 0.626037
2.50000000 1.60000002 -0.09398500 -0.285820 -0.729720 0.621140
2.50000000 1.70000005 0.02231300 -0.265546 -0.720313 0.640808
2.50000000 1.79999995 0.13100800 -0.241344 -0.692485 0.679866
2.50000000 1.89999998 0.22596900 -0.209574 -0.634932 0.743600
2.50000000 2.00000000 0.30187500 -0.168780 -0.533226 0.828965
2.50000000 2.09999990 0.35461700 -0.110788 -0.367925 0.923232
2.50000000 2.20000005 0.38161501 -0.039782 -0.135260 0.990011
2.50000000 2.29999995 0.38201100 0.032569 0.124660 0.991665
2.50000000 2.40000010 0.35673901 0.089519 0.346050 0.933935
2.50000000 2.50000000 0.30845699 0.122652 0.497822 0.858563
2.50000000 2.59999990 0.24134400 0.141753 0.589395 0.795311
2.50000000 2.70000005 0.16079000 0.148954 0.636440 0.756807
2.50000000 2.79999995 0.07299100 0.145954 0.654537 0.741808
2.50000000 2.90000010 -0.01551100 0.139349 0.645798 0.750684
2.50000000 3.00000000 -0.09831400 0.126103 0.606777 0.784805
2.50000000 3.09999990 -0.16962001 0.108494 0.530895 0.840464
2.50000000 3.20000005 -0.22465301 0.080565 0.411017 0.908061
2.50000000 3.29999995 -0.25999200 0.045262 0.238543 0.970077
2.50000000 3.40000010 -0.27379099 0.005053 0.029310 0.999558
2.50000000 3.50000000 -0.26588601 -0.031426 -0.178080 0.983514
2.50000000 3.59999990 -0.23775600 -0.058965 -0.344618 0.936889
2.50000000 3.70000005 -0.19237299 -0.076392 -0.459742 0.884761
2.50000000 3.79999995 -0.13393500 -0.086876 -0.528379 0.844552
2.50000000 3.90000010 -0.06750200 -0.090592 -0.559368 0.823954
2.50000000 4.00000000 0.00141300 -0.087531 -0.558188 0.825085
2.50000000 4.09999990 0.06728800 -0.080949 -0.524040 0.847838
2.50000000 4.19999981 0.12502800 -0.067600 -0.456645 0.887077
2.50000000 4.30000019 0.17034400 -0.050986 -0.351669 0.934735
2.50000000 4.40000010 0.20007899 -0.029645 -0.205143 0.978283
2.50000000 4.50000000 0.21241701 -0.005073 -0.033483 0.999426
2.50000000 4.59999990 0.20699400 0.019023 0.137635 0.990300
2.50000000 4.69999981 0.18488100 0.036170 0.280631 0.959134
2.50000000 4.80000019 0.14845900 0.049048 0.385752 0.921298
2.50000000 4.90000010 0.10119200 0.055568 0.429638 0.901290
2.59999990 -5.00000000 0.04020900 0.062231 -0.474335 0.878142
2.59999990 -4.90000010 0.09446900 0.058920 -0.453548 0.889282
2.59999990 -4.80000019 0.14272800 0.054756 -0.393973 0.917490
2.59999990 -4.69999981 0.18071900 0.041597 -0.296222 0.954213
2.59999990 -4.59999990 0.20488800 0.021633 -0.158264 0.987160
2.59999990 -4.50000000 0.21271899 -0.000987 0.008884 0.999960
2.59999990 -4.40000010 0.20296501 -0.026763 0.180357 0.983237
2.59999990 -4.30000019 0.17578700 -0.050433 0.329757 0.942718
2.59999990 -4.19999981 0.13278399 -0.067189 0.440159 0.895402
2.59999990 -4.09999990 0.07690200 -0.080721 0.514066 0.853944
2.59999990 -4.00000000 0.01223300 -0.090595 0.550759 0.829733
2.59999990 -3.90000010 -0.05628200 -0.093593 0.557240 0.825060
2.59999990 -3.79999995 -0.12322500 -0.089998 0.532847 0.841412
2.59999990 -3.70000005 -0.18312500 -0.082602 0.471812 0.877822
2.59999990 -3.59999990 -0.23088799 -0.065095 0.365329 0.928600
2.59999990 -3.50000000 -0.26221001 -0.039465 0.209284 0.977058
2.59999990 -3.40000010 -0.27394000 -0.000989 0.010880 0.999940
2.59999990 -3.29999995 -0.26435301 0.039266 -0.198710 0.979271
2.59999990 -3.20000005 -0.23332100 0.076568 -0.377469 0.922851
2.59999990 -3.09999990 -0.18235900 0.107512 -0.506022 0.855794
2.59999990 -3.00000000 -0.11455100 0.128654 -0.590033 0.797063
2.59999990 -2.90000010 -0.03434600 0.142411 -0.634102 0.760023
2.59999990 -2.79999995 0.05274900 0.149484 -0.650785 0.744401
2.59999990 -2.70000005 0.14056100 0.152588 -0.639055 0.753874
2.59999990 -2.59999990 0.22269800 0.148470 -0.598377 0.787338
2.59999990 -2.50000000 0.29301700 0.136002 -0.519146 0.843795
2.59999990 -2.40000010 0.34607399 0.103071 -0.386174 0.916649
2.59999990 -2.29999995 0.37752700 0.051255 -0.187140 0.980995
2.59999990 -2.20000005 0.38444799 -0.017876 0.062041 0.997913
2.59999990 -2.09999990 0.36553901 -0.093211 0.300637 0.949173
2.59999990 -2.00000000 0.32121399 -0.157038 0.482854 0.861505
2.59999990 -1.89999998 0.25356299 -0.204732 0.598803 0.774287
2.59999990 -1.79999995 0.16617399 -0.241268 0.667034 0.704880
2.59999990 -1.70000005 0.06386000 -0.269372 0.702918 0.658289
2.59999990 -1.60000002 -0.04771500 -0.289765 0.715609 0.635563
2.59999990 -1.50000000 -0.16246600 -0.308288 0.711806 0.631103
2.59999990 -1.39999998 -0.27434200 -0.322341 0.691657 0.646302
2.59999990 -1.29999995 -0.37776899 -0.326766 0.655158 0.681169
2.59999990 -1.20000005 -0.46804899 -0.321643 0.596414 0.735416
2.59999990 -1.10000002 -0.54167902 -0.301550 0.513109 0.803608
2.59999990 -1.00000000 -0.59657198 -0.252771 0.393366 0.883951
2.59999990 -0.89999998 -0.63215101 -0.175991 0.248537 0.952500
2.59999990 -0.80000001 -0.64932799 -0.066122 0.086295 0.994073
2.59999990 -0.69999999 -0.65035498 0.057488 -0.055318 0.996812
2.59999990 -0.60000002 -0.63856798 0.179924 -0.156955 0.971078
2.59999990 -0.50000000 -0.61804903 0.283820 -0.211117 0.935348
2.59999990 -0.40000001 -0.59322900 0.372303 -0.223382 0.900828
2.59999990 -0.30000001 -0.56847000 0.441457 -0.196367 0.875532
2.59999990 -0.20000000 -0.54766399 0.492646 -0.144724 0.858111
2.59999990 -0.10000000 -0.53387201 0.521756 -0.074941 0.849797
2.59999990 0.00000000 -0.52905101 0.533024 0.004048 0.846091
2.59999990 0.10000000 -0.53387201 0.521853 0.083895 0.848900
2.59999990 0.20000000 -0.54766399 0.491017 0.153901 0.857448
2.59999990 0.30000001 -0.56847000 0.439694 0.202822 0.874947
2.59999990 0.40000001 -0.59322900 0.370516 0.226996 0.900661
2.59999990 0.50000000 -0.61804903 0.280910 0.216622 0.934968
2.59999990 0.60000002 -0.63856798 0.174907 0.159587 0.971565
2.59999990 0.69999999 -0.65035498 0.055087 0.055087 0.996961
2.59999990 0.80000001 -0.64932799 -0.070885 -0.088888 0.993516
2.59999990 0.89999998 -0.63215101 -0.179510 -0.249695 0.951540
2.59999990 1.00000000 -0.59657198 -0.256618 -0.397683 0.880906
2.59999990 1.10000002 -0.54167902 -0.302317 -0.514414 0.802485
2.59999990 1.20000005 -0.46804899 -0.324679 -0.599283 0.731740
2.59999990 1.29999995 -0.37776899 -0.329690 -0.657756 0.677245
2.59999990 1.39999998 -0.27434200 -0.322291 -0.694787 0.642962
2.59999990 1.50000000 -0.16246600 -0.308204 -0.714841 0.627704
2.59999990 1.60000002 -0.04771500 -0.293289 -0.716395 0.633056
2.59999990 1.70000005 0.06386000 -0.269372 -0.702918 0.658289
2.59999990 1.79999995 0.16617399 -0.241268 -0.667034 0.704880
2.59999990 1.89999998 0.25356299 -0.205221 -0.600232 0.773050
2.59999990 2.00000000 0.32121399 -0.157038 -0.482854 0.861505
2.59999990 2.09999990 0.36553901 -0.092979 -0.299890 0.949432
2.59999990 2.20000005 0.38444799 -0.017843 -0.057728 0.998173
2.59999990 2.29999995 0.37752700 0.053734 0.189859 0.980340
2.59999990 2.40000010 0.34607399 0.103221 0.389488 0.915229
2.59999990 2.50000000 0.29301700 0.136130 0.522563 0.841663
2.59999990 2.59999990 0.22269800 0.148552 0.601712 0.784777
2.59999990 2.70000005 0.14056100 0.155589 0.641995 0.750756
2.59999990 2.79999995 0.05274900 0.152435 0.650488 0.744062
2.59999990 2.90000010 -0.03434600 0.142736 0.635549 0.758752
2.59999990 3.00000000 -0.11455100 0.128654 0.590033 0.797063
2.59999990 3.09999990 -0.18235900 0.107776 0.507266 0.855024
2.59999990 3.20000005 -0.23332100 0.076759 0.378407 0.922451
